# .PCD v0.7 - Point Cloud Data file format
VERSION 0.7
FIELDS x y z
SIZE 4 4 4
TYPE F F F
COUNT 1 1 1
WIDTH 1517
HEIGHT 1
VIEWPOINT 0 0 0 1 0 0 0
POINTS 1517
DATA ascii
-13.158086 -7.6244335 21.114483
-0.53926891 -7.796032 21.70883
-0.34540948 -8.0145378 22.358974
0.16199856 -7.8181953 21.893694
1.0944057 -7.8734217 22.149267
-15.82359 -7.0944304 19.974009
-2.858331 -7.5916739 21.94656
5.643846 -7.2875314 21.166685
-14.408006 -6.9351873 20.234241
-15.053142 -7.0425749 20.662067
-0.088542059 -7.5542107 22.216175
-12.529692 -6.8647466 20.26796
2.792706 -7.4997606 22.466272
-14.365249 -6.9630203 20.83033
-13.374424 -6.7268977 20.150517
3.7149446 -7.3139119 22.05463
3.8958359 -7.1796942 21.680729
4.1249919 -7.1439896 21.629587
-0.5814327 -7.0994039 21.949244
1.0383203 -7.0192595 21.949356
-13.882719 -6.0775976 19.424417
-2.6569912 -7.0756388 22.789959
5.5044956 -6.8026295 21.954021
-14.456998 -5.3887391 17.439287
-14.429488 -5.3662524 17.516329
-14.685578 -5.9795766 19.584133
-0.2431841 -6.7827764 22.225996
-0.0017271599 -6.7100387 22.02718
0.46296754 -6.728703 22.165094
-14.733218 -6.1085501 20.264292
-14.503034 -6.2052116 20.568466
-14.773888 -6.2389522 20.772346
-12.265082 -6.37923 21.561249
4.2072811 -6.5037317 22.021832
-15.087448 -5.8508701 19.883965
-13.20784 -6.2605767 21.291145
-12.568112 -6.4382501 21.932972
-15.739835 -5.7792802 19.799629
-15.11617 -5.7483497 19.959034
0.59017181 -6.4040575 22.373051
-15.04814 -5.6540842 19.746304
0.66352504 -5.1918917 18.175848
-16.173813 -5.5765452 19.829458
-15.896271 -5.3764668 19.546434
-14.525726 -5.5989165 20.424833
-14.464499 -5.3919764 19.774887
-13.320594 -5.7529292 21.059618
-13.92746 -5.4520726 20.519226
-14.54985 -5.4417772 20.764029
-15.573557 -5.0663047 19.557716
-14.294282 -4.9778056 20.070156
-14.641677 -4.9367256 20.20994
-2.7822506 -5.5217085 22.697271
-13.070163 -5.2108903 21.432812
-2.650274 -5.6459675 23.289246
-15.821291 -4.6188369 19.13809
5.6760368 -4.9220829 20.556635
-12.631591 -4.9794817 20.976263
3.5603046 -5.2153029 22.790979
-13.331716 -4.7913542 21.022068
-14.41985 -4.6347432 20.457602
5.8810115 -5.0422554 22.573555
-15.781808 -4.1767578 19.042007
-14.457797 -4.3397899 19.913656
5.9918642 -4.1472001 19.831919
5.7232714 -4.009974 19.268814
-14.153818 -4.1654487 20.464825
6.0817189 -3.8821192 19.162634
-10.296946 -4.4632945 22.09606
-15.592417 -4.1556015 20.711363
5.7827215 -3.6771975 18.97648
5.8549314 -3.577172 18.625767
-14.143898 -3.9787209 20.784664
5.8019543 -3.5870419 18.755934
5.3544283 -3.7112267 19.712999
5.9839668 -3.3932841 18.359985
5.4250455 -3.4831064 18.949083
5.4986205 -3.3542836 18.243834
-14.010839 -3.7792234 20.638235
5.7263875 -3.2640786 17.909142
-14.251918 -4.0815883 22.464661
-14.271027 -3.5959086 20.697641
-14.431411 -3.4801283 20.958954
-13.645452 -3.3615072 20.555756
-14.297311 -3.3956811 20.922314
7.3720136 -2.7095408 16.833452
5.2800817 -3.1522939 19.800045
7.3947668 -2.8102589 17.695066
-13.773202 -3.2362325 20.510555
-9.1299896 -3.5118339 23.308435
-13.724775 -3.0933731 20.910877
-13.829218 -3.1942823 21.649271
-14.391811 -2.9846895 20.76343
-13.808911 -3.070442 21.575802
6.9832201 -2.105231 14.836586
1.726548 -3.1418409 23.000797
-14.661314 -2.8107724 20.784744
-13.490105 -2.6978717 20.719368
6.9600453 -1.8220505 14.405888
0.15366946 -2.8476689 23.675632
3.4707646 -2.2880926 20.215551
-16.112715 -2.1076984 20.498703
-3.7719426 -2.2218742 21.718262
-4.1614366 -2.0940905 21.099813
-3.8809233 -2.0832334 21.203308
-3.5851581 -2.1413903 21.726572
-3.8248844 -2.0137868 21.210958
-3.7637353 -2.028368 21.413637
-4.2264843 -2.0001585 21.174065
-3.4920256 -2.066853 21.917231
-4.4824724 -1.874118 21.228191
-4.318367 -1.8245955 21.030476
-4.0480556 -1.7857413 21.384714
-4.7357121 -1.7548262 21.442726
-13.261372 -1.7494004 21.457224
-4.6600151 -1.6661094 21.37405
-15.628953 -1.6265299 20.97303
-3.2393696 -1.6518632 21.689548
-4.3808932 -1.6038287 21.143038
-4.7851734 -1.590552 21.508978
-4.0488572 -1.5229729 21.10376
6.3114829 -1.0956839 16.029631
9.2333527 -0.84439206 12.636653
-4.2514081 -1.2721199 20.49198
-14.683176 -1.2717797 20.832561
9.705595 -0.81038976 13.177292
-14.251628 -1.257404 23.294487
-11.889177 -1.1127225 20.543203
-13.143612 -1.0990913 20.417917
-4.3779559 -1.1413714 21.479151
-14.484687 -1.0215245 20.605804
-14.808291 -0.98456359 22.054533
-5.6037912 -1.0565031 23.975161
-12.19907 -0.89575917 20.708195
-9.6895494 -0.91643441 21.806246
0.59903598 -0.87856877 21.196634
5.1796808 -0.69676661 16.583586
5.1384211 -0.65673333 16.679436
-14.231817 -0.80628145 21.6933
-5.3726854 -0.75056279 21.602976
-5.043241 -0.7317571 21.041164
-3.7429841 -0.79334998 22.315769
1.1385936 -0.6849426 20.614145
-11.017641 -0.64387351 20.081165
1.0014273 -0.6619727 20.573395
-8.7743807 -0.64100438 21.046286
-3.7712994 -0.69323844 22.297226
-8.2209835 -0.58497882 20.499586
-11.780988 -0.53523695 20.37616
0.87877232 -0.50641292 20.480867
0.65171498 -0.48203275 20.350338
1.7096286 -0.46151292 20.55731
-5.110497 -0.44663447 20.945642
0.36891913 -0.44892824 21.088087
-5.0473542 -0.38219413 21.053576
-11.732608 -0.35613236 20.340017
1.7357379 -0.36389476 20.31094
1.2772477 -0.33627847 20.271769
-0.2009934 -0.32733336 21.189785
-11.752895 -0.28064445 20.500139
-10.846457 -0.28611362 20.235388
-5.4215994 -0.28622478 20.598103
-8.9688873 -0.22459565 20.467104
-3.9021008 -0.25156277 21.889545
-11.585798 -0.20771484 20.330257
-5.9733968 -0.22670306 21.784227
-4.2304769 -0.24283317 22.024004
-8.4988403 -0.19884059 20.214123
-0.020892331 -0.14752173 20.748529
-5.2790155 -0.1221578 20.515179
-5.06041 -0.11045546 20.763632
1.7680639 -0.077413283 19.998192
-11.353666 -0.049856786 20.155945
-10.471581 -0.046240464 19.804892
-0.12368309 -0.058051031 20.842995
-5.3328876 -0.0035904462 21.667053
-11.693814 0.016949896 20.315207
-5.0163264 0.012056344 21.47197
-4.6921439 0.039369769 21.105206
-11.210935 0.061830577 19.914135
-5.0738373 0.052377954 19.944965
-5.2028227 0.05722684 21.53726
5.5121398 0.065321945 21.406937
-10.58298 0.081078798 19.962456
-4.1315503 0.074746087 19.365623
0.81701416 0.10839096 20.022575
1.3769329 0.10596878 20.180862
-10.988687 0.12259349 20.096184
-10.016577 0.12199631 20.175348
-5.2029004 0.14429961 21.223967
-4.7989993 0.14567241 21.127956
-5.1412764 0.15659168 20.302399
2.7442369 0.16501269 20.13439
5.5033326 0.16408719 21.226965
-8.6735315 0.18527439 21.258911
-5.2405844 0.21263409 20.996292
-4.7159448 0.1926983 19.828005
0.24597108 0.20013165 20.287066
-11.103765 0.21443662 19.852371
-0.84878778 0.30296612 20.502569
0.2062837 0.28115547 18.991823
0.75643629 0.31582859 20.139496
2.264195 0.33136493 20.558233
-10.720604 0.35655031 20.022209
1.078863 0.34825981 19.767929
5.067564 0.3665835 21.202429
-8.8748693 0.40776113 20.649363
-8.8955193 0.41565159 20.232903
-0.03363945 0.40586379 19.652054
1.3413478 0.40942413 19.842442
5.0814857 0.33898795 16.424692
-0.74260968 0.43329909 19.850077
-10.323709 0.44781631 20.259342
-11.103002 0.47258064 20.025396
-12.22283 0.44608513 17.679529
-10.493546 0.52640063 20.872675
-7.5952144 0.50432253 19.857553
-10.745153 0.57019895 21.086227
-9.777627 0.50759012 19.559759
-11.149055 0.55304825 19.885365
-7.0881867 0.5224725 19.166679
-1.0574987 0.55143827 20.331318
-11.603093 0.57708073 20.2904
-9.17665 0.56576651 19.805988
1.9498646 0.57907963 20.429125
5.2539768 0.598795 20.986626
-11.06744 0.56670612 19.542347
-6.9846511 0.54574198 18.64292
0.77868086 0.53645432 18.627604
5.5010962 0.59490472 19.961546
1.5633553 0.6072554 19.751057
-0.98126727 0.63510752 20.034576
5.1340756 0.66290373 20.880817
-8.3893118 0.67333359 20.343044
-9.2669611 0.69486386 20.212551
-0.48039094 0.6776647 19.438866
-10.572857 0.78419954 19.76623
-1.1082301 0.8025558 20.207209
-10.604596 0.79125994 19.599783
-9.9057503 0.93541151 20.042931
-1.1377079 0.91474038 19.952488
-9.9877834 0.92383844 19.825693
-8.7778721 0.96624112 20.387453
-10.019116 0.95614809 19.659779
-8.5308924 0.98181307 20.049835
-1.3827708 0.96900856 20.179117
-10.778159 0.97995895 19.558241
-8.2392817 1.0222613 19.199467
1.6137993 1.0178517 19.37104
-11.474687 1.0543271 19.553068
-11.141869 1.0326107 19.234278
-9.1919041 1.0692102 19.795366
-11.126504 1.1296673 19.306551
-10.381707 1.1403191 19.404421
1.7598752 1.1105692 19.133705
5.1987243 1.1729686 20.127331
6.6574779 1.1815591 19.843088
1.4764315 1.1633105 19.454758
-9.1904325 1.3052738 20.881937
-1.3331621 1.2848941 20.480762
-0.48562711 1.2711622 19.728575
0.68584281 1.2475176 18.990807
1.4778893 1.2499022 19.253063
-11.376639 1.2981291 19.325544
-9.9873123 1.2845327 19.183252
-0.84493303 1.3634946 19.663679
-0.56582099 1.3892854 19.683891
-0.4697946 1.3147503 18.446079
-7.8159013 1.482712 19.977678
-1.2323879 1.5333189 20.584885
-0.26517028 1.4958578 19.615942
-2.298131 1.6507094 20.255384
-1.7570649 1.6908439 19.862772
6.8588076 1.662135 19.225733
-11.35736 1.7617936 18.121769
0.91928828 1.8469517 18.843275
0.79025739 1.8686569 18.974945
-6.9164186 2.2187831 22.254984
0.91871649 1.948544 18.904163
-6.0364799 2.5042181 23.693434
1.1321448 2.0291557 18.848255
1.0081632 2.0265675 18.71356
6.3024197 1.897006 17.517162
6.367085 1.9891819 17.599869
6.4732313 2.032059 17.5305
6.1933956 2.0257404 17.180805
6.9730697 1.9778136 16.729889
-1.4111184 2.2584093 18.326284
-1.070457 2.2133405 17.601528
-5.8655052 2.150496 17.042185
-1.0464157 2.4772558 18.862286
2.2155962 2.5397243 17.807734
2.1546364 2.4274163 16.931578
4.5830231 3.9443009 22.106422
2.0040751 3.9532814 17.986361
4.6882381 4.4706755 18.269321
-1.5263838 4.3070402 13.841656
4.5878215 5.8075638 18.550524
-6.9945946 4.7074924 14.827906
-0.78606749 4.348083 13.62702
-7.4135427 4.5802655 14.055623
-7.1214051 4.4563012 13.4945
5.8115196 6.3353596 17.526548
7.5440831 6.3081026 16.807148
9.1567106 6.8177614 17.220505
8.9533758 6.5135756 16.327192
9.6833601 7.2076821 17.03825
1.4563531 -9.2881775 21.235027
0.6961816 -9.2151575 21.2381
-13.396347 -9.1293468 21.144104
1.1714157 -9.3617887 21.783983
-14.061746 -9.1541328 21.318169
6.1146502 -8.6449041 20.280605
-14.213396 -9.0515862 21.334837
7.1217351 -8.1095428 19.124287
-13.244572 -8.8487415 20.867146
-13.967406 -9.475214 22.385445
-14.617173 -8.7447186 20.777302
-14.690513 -8.7621822 21.063431
-2.7784288 -8.6890793 21.074547
-14.190772 -8.7671165 21.293953
-14.637134 -8.4646416 20.631517
-13.163747 -8.4940281 21.306557
-14.198958 -8.163434 20.57939
-14.329039 -8.3084574 21.001734
-13.402254 -8.4101238 21.268969
-14.502783 -8.2039375 21.117195
-13.070433 -8.3350973 21.450449
-9.9435663 -7.1744857 18.477671
-12.767694 -8.6537857 22.393995
-10.548806 -7.6463375 19.829145
-13.070261 -8.1302586 21.275255
-15.41045 -7.6009336 20.205328
-15.655492 -7.5984936 20.315929
-15.302544 -7.4574032 20.180471
-13.242432 -7.7713552 21.128315
-13.24483 -7.9153905 21.54406
-15.404089 -7.3846354 20.140472
-14.266037 -7.5557456 20.624727
-14.990283 -7.4990458 20.572506
-14.444555 -7.4697008 20.525368
-15.035694 -7.4028659 20.413523
-13.532169 -7.7295837 21.274963
-15.183952 -7.378675 20.40971
-14.510361 -7.3475542 20.268648
-15.286054 -7.3111873 20.24037
-12.39523 -7.3663254 20.420361
-13.203703 -7.5011492 21.002527
-12.00543 -7.3190088 20.492283
-14.555907 -7.2189636 20.365227
-13.422985 -7.6845288 21.977846
-15.825397 -6.9845967 20.042566
-14.008646 -6.911931 19.811344
-15.396957 -6.9546156 20.022148
-13.307894 -7.1448731 20.66711
-15.811153 -6.740252 19.555616
-14.436515 -7.2255468 20.953999
-13.931878 -7.0895314 20.611301
-13.929852 -7.2632213 21.078297
-14.804235 -6.8389158 19.949013
-14.659341 -6.9047484 20.172558
-2.8611696 -7.3781123 21.710518
-14.380518 -6.9430547 20.547596
-12.966982 -6.9947104 20.71195
-15.048404 -6.9118457 20.489716
-14.232249 -7.1312041 21.156008
-13.454777 -7.017983 20.778576
-12.72363 -6.7299223 20.035036
-14.673075 -6.1065712 18.23069
-14.734627 -5.9550824 18.094503
-14.458539 -6.8068419 20.69067
-15.269944 -6.2125401 18.911705
-14.408861 -6.769032 20.855122
-14.297469 -6.5897169 20.309261
4.1629114 -6.6501431 20.885393
-13.836428 -6.0796475 19.147818
-14.857381 -6.5991125 20.931744
-14.151575 -5.5607224 17.705305
-13.048265 -6.7531424 21.476398
-12.788078 -6.620121 21.319992
-13.697951 -5.4346547 17.522905
-12.788809 -6.8135891 21.9958
-5.3052692 -6.7378845 21.902195
-14.440944 -6.2551017 20.323181
-13.33299 -6.5865059 21.579071
-14.119013 -6.3405066 20.812675
-12.360501 -6.5794716 21.732389
-15.68995 -5.8694215 19.526609
-13.230527 -6.3848662 21.248144
-2.8161011 -6.4477415 21.467537
-2.9222121 -6.8615413 22.988525
-2.6500001 -6.8159118 22.878269
-14.713246 -6.0926185 20.488638
-12.832014 -6.3561807 21.348682
1.1557591 -6.3820157 21.569138
-15.227255 -6.1529274 21.032871
-13.100124 -6.1254845 21.22896
-15.635634 -5.635891 19.558153
-14.396173 -5.6521454 19.720238
7.6847324 -5.8753567 20.490219
-14.795349 -5.8388591 20.530983
-13.271061 -6.0223541 21.170069
-12.972891 -6.0400686 21.281898
-12.457223 -5.9855595 21.093615
-12.229414 -6.1248307 21.57741
-14.568843 -5.7707744 20.505041
-13.165327 -5.9897814 21.264833
-2.7401736 -6.3251672 22.48168
-14.597219 -5.5496607 19.91613
-14.704332 -5.7036109 20.490995
7.5956841 -5.7342095 20.621231
-14.099428 -5.9390659 21.374033
-13.287344 -5.8548088 21.211618
-11.885384 -5.8376222 21.138624
-14.420388 -5.4042697 19.858484
-14.518299 -5.5049038 20.189283
-11.910166 -6.0150914 22.402569
-14.465511 -5.239316 19.691345
-14.474805 -5.3865452 20.306656
0.51681995 -4.0320783 15.266019
-14.006419 -5.5904984 21.179201
-13.372452 -5.5416369 21.064268
-14.379256 -5.2472897 19.988623
-12.1911 -5.5610471 21.264111
-15.738388 -5.3017683 20.446301
7.4855161 -5.2926879 20.505623
-15.488238 -5.2688022 20.42964
-13.696067 -5.4780765 21.212233
-13.251874 -5.4149456 21.077738
-12.007971 -5.5544372 21.690645
-11.991583 -5.650775 22.187662
-14.913667 -5.0655808 19.884771
-13.195883 -5.3363552 21.273083
-15.448878 -4.9374142 19.734055
-12.055824 -5.5049376 22.0151
-12.463539 -5.3255587 21.365854
-15.117849 -5.0269303 20.297262
-13.410953 -5.0896258 20.707071
-12.588904 -5.1203918 20.907692
-12.450853 -5.0990176 20.996714
-15.334828 -4.7315516 19.797813
-12.941291 -4.7497435 19.948133
-12.747596 -4.9726443 20.962299
-12.481803 -5.0869222 21.406702
-15.319835 -4.6272345 19.574963
-15.832764 -4.6236687 19.633007
-13.154184 -4.87573 20.728168
-12.476022 -4.9521794 21.114193
-14.428403 -4.6894321 20.381666
-15.986528 -4.5233827 19.795477
-15.249332 -4.458467 19.670488
-13.226865 -4.7480574 21.060205
-15.546268 -4.4122481 19.643343
2.3644309 -4.9425554 22.03219
-14.6569 -4.5055861 20.052246
3.9697647 -4.6685853 21.167179
-14.984338 -4.0971074 19.130816
-14.217284 -4.3677864 20.460667
-14.097737 -4.3142362 20.611015
-10.939214 -4.7202406 22.630894
6.0493784 -3.9938374 19.220987
-14.779205 -4.034708 19.421255
5.7659798 -3.8662186 18.789206
-14.154925 -4.100615 20.322104
-10.518035 -4.5612235 22.675999
5.5978599 -3.9793544 19.908129
5.5059052 -3.9148681 20.025734
-14.642484 -4.1057806 21.229177
-13.467193 -3.9942317 20.729668
5.5016394 -3.484412 18.651651
-14.53093 -3.873049 20.958796
-14.136397 -3.9296939 21.268768
-13.25736 -3.790211 20.500586
5.8469806 -3.3850775 18.382891
-15.816148 -3.8487301 21.403625
5.3639412 -3.4219704 19.004635
-16.144371 -3.4663646 19.708294
5.8021712 -3.1956372 18.132673
5.2434878 -3.5383537 20.310305
-13.951674 -3.6484144 21.005608
7.261816 -3.0825822 17.787212
-13.858318 -3.4813352 20.289883
5.4512486 -3.1652551 18.45507
6.4058247 -3.1894231 18.606388
5.965199 -3.0838301 18.075081
-13.939877 -3.5890412 21.193176
5.3896165 -3.4240489 20.293137
5.4207149 -3.2776194 19.998756
-13.77257 -3.357914 20.561758
-10.385168 -3.6213799 22.231304
-15.377155 -3.479058 21.420374
-10.176073 -3.6403029 22.464176
7.4320493 -2.715744 16.751263
-11.895379 -3.7070432 23.211138
6.2890477 -2.9541552 18.506037
-10.239966 -3.8524349 24.235069
-11.790657 -3.5477636 22.409761
-10.923641 -3.7235014 23.722261
-9.876936 -3.4500396 22.135984
-9.2488842 -3.2872117 21.114336
5.4612641 -3.1181366 20.079212
5.3725214 -2.8743649 18.612082
5.6567802 -2.7191353 17.899635
7.500958 -2.644197 17.465014
-9.0224276 -3.3499703 23.093901
6.911974 -2.8164167 19.491528
-13.780576 -3.0295968 21.027281
6.2920566 -2.6688201 18.524542
7.223896 -2.1959159 15.437291
-15.847857 -2.8819547 20.309225
-14.242996 -2.953764 20.840448
5.2011561 -2.4894936 17.645124
6.4628935 -2.6245425 18.607351
-13.08886 -2.9352174 20.890566
-14.780111 -2.8960445 20.852907
-14.585836 -2.9302688 21.043915
5.1323867 -2.6896582 19.50469
-13.215376 -2.9095426 21.294207
-8.5514231 -3.0946772 22.630627
-13.092749 -2.9759927 21.885359
0.8118546 -3.0409977 22.39599
-13.839345 -2.8605583 21.143351
-14.40618 -3.0241175 22.288509
5.4098663 -2.6519816 19.657278
-14.544007 -2.9037955 21.499405
2.1602314 -2.8175526 21.022249
-13.477239 -2.6927269 20.209141
7.3998709 -1.932968 14.749881
-14.413553 -2.6338921 20.316263
0.74291384 -2.9836285 23.049908
-12.793429 -2.7616086 21.478477
6.0685716 -2.2514243 17.445089
7.2546353 -1.9780172 15.525904
0.34001374 -2.9274232 23.557327
3.0519888 -2.5102863 20.43339
6.5292764 -2.1342254 17.618731
-13.218557 -2.4874372 21.605026
-5.2647514 -2.6345379 22.72789
-0.0045914506 -2.6184824 22.917923
3.3583236 -2.2226183 20.144836
5.345778 -2.2329717 20.403629
-16.20373 -2.2489243 21.065426
-16.085449 -2.1413851 20.251562
-4.144165 -2.2005513 20.914946
-4.367825 -2.2025905 21.167316
3.6716003 -2.0428262 20.067989
5.184926 -1.556856 15.494124
-3.8509488 -2.1445162 21.539278
-3.676157 -2.1400468 21.78443
5.1960902 -1.5300028 16.199665
5.3386741 -1.5058463 16.161144
-3.6156049 -1.9404163 21.406744
6.007926 -1.3751968 15.170975
-4.1452079 -1.9187715 21.336897
-3.9086418 -1.8876833 21.176422
-3.3102696 -1.8794322 21.279165
6.4257669 -1.3711554 15.943112
-4.583796 -1.8012319 21.248981
-4.2263088 -1.7783426 21.274645
-3.8410814 -1.7672012 21.291965
-16.271564 -1.6837574 20.681238
-3.451472 -1.7640562 21.456631
7.4439216 -1.210737 15.049936
-4.4937353 -1.6847278 21.367355
-4.0671635 -1.6644247 21.365042
-3.7287009 -1.6388468 21.192358
-13.368473 -1.6041976 21.470915
-13.026775 -1.6043465 21.333971
6.4034414 -1.1923231 16.102135
-8.42698 -1.5661284 21.528456
-4.2949677 -1.5470086 21.443911
-13.534526 -1.5320197 21.401569
-4.5429597 -1.5247623 21.204309
-3.1136973 -1.5485555 21.661636
-3.3438272 -1.462067 21.586674
6.5596213 -1.1069541 16.323503
-4.2040858 -1.365417 20.591988
-0.43193278 -1.4654143 22.154455
-8.5345144 -1.406046 21.706844
-3.9222653 -1.3565158 20.725761
-14.601005 -1.3353311 20.964849
-11.817618 -1.3047714 20.491505
-8.8678226 -1.3517342 21.16544
-8.8125811 -1.5235766 23.496641
-3.2601728 -1.4104315 21.978031
-11.674891 -1.3157113 20.690691
-3.5250835 -1.3510959 21.635494
-12.54423 -1.2617793 20.598116
-10.132232 -1.293236 20.9981
-3.8211977 -1.3379722 21.718945
-10.451262 -1.2727937 20.878206
-10.943143 -1.2625978 21.002359
-9.802618 -1.2806596 21.349009
-8.8000736 -1.2826316 21.32534
-8.9508362 -1.2373058 21.105978
-13.495821 -1.1742771 20.26123
-13.575051 -1.1995776 20.7279
-10.26874 -1.1962315 20.76972
-3.6650186 -1.2457275 21.731041
-11.693554 -1.1527544 20.4191
-10.951351 -1.1518892 20.534342
-14.654561 -1.1412246 20.817278
0.14631072 -1.2157229 21.95875
-9.634243 -1.1190829 20.814838
-10.314763 -1.0850379 20.624756
-10.223107 -1.1014928 20.908779
-11.672011 -1.0675073 20.597454
-10.825404 -1.062602 20.517372
9.795351 -0.68121272 13.098952
-13.355939 -1.1255912 22.155401
-8.8165417 -1.080817 21.10202
-13.389024 -1.0596201 20.964148
-14.277455 -1.0756322 21.853497
-0.62464273 -1.1079017 22.743053
-15.080527 -1.0775692 22.218163
-9.5278015 -1.0118219 20.85873
-4.4088435 -1.007053 21.623325
0.55687445 -0.97492266 21.143383
-13.981642 -0.96578163 21.659697
-9.4605904 -0.94442677 21.058031
-15.492784 -0.99099994 22.602718
-11.757904 -0.86165553 19.744797
0.38233149 -0.94395959 21.113644
-14.473572 -0.95038998 21.953634
-10.989421 -0.88422805 20.515736
-8.684392 -0.90745717 21.167192
-8.2349777 -0.83759689 20.474257
-3.6727524 -0.92106456 21.995611
-0.54071093 -0.96286362 23.18619
-9.8097839 -0.83501774 20.781521
-10.184849 -0.79178119 20.038322
-4.5355668 -0.84926951 21.890886
-4.9457135 -0.8244195 21.876411
-9.5243578 -0.78482682 21.182005
-8.6568995 -0.75144041 20.686352
-3.6289663 -0.79515648 22.05525
-11.117995 -0.71968466 20.52393
-4.4374757 -0.73291004 21.978956
-11.285322 -0.62778193 20.000172
-3.5703695 -0.70204198 22.209478
-9.5941534 -0.62721223 20.538704
-10.098648 -0.60548496 20.313988
-4.8406773 -0.63217497 21.20573
-4.5780716 -0.63329726 22.080456
-9.477355 -0.59391254 20.793749
-5.6316891 -0.57595408 21.095873
0.39202547 -0.59119326 20.889778
5.0283108 -0.61223358 22.249767
-10.539591 -0.5140031 20.017637
5.1662297 -0.57432413 21.582239
-3.9373217 -0.57073742 22.371117
-8.7860098 -0.51722276 20.817472
0.96162742 -0.51203418 20.601818
-4.0203958 -0.51623553 21.659132
-3.7258935 -0.54670835 22.469496
-8.2403507 -0.47333971 20.719772
-3.1081281 -0.50061631 21.906719
-10.935596 -0.44666165 20.404209
0.20833088 -0.45712882 20.841682
1.2294333 -0.4411104 19.962114
-2.9125884 -0.45837206 21.709917
0.47362086 -0.42389116 20.537107
-10.0473 -0.39890602 20.518269
-8.6867905 -0.42246547 20.857025
-6.7223787 -0.46485671 22.466764
-15.032348 -0.39811158 21.416437
-9.3278103 -0.37866497 20.741499
-10.191389 -0.36657315 20.351494
-1.9409008 -0.35266688 20.043283
-5.4507484 -0.35170668 20.769993
-9.4693222 -0.33128583 20.496267
-6.6744761 -0.33713198 21.559132
-2.1626003 -0.31769866 19.818336
-11.793186 -0.29480436 20.22188
-5.1855512 -0.31752455 20.875376
-5.3127556 -0.28213337 20.701996
-0.35968131 -0.29935968 21.554291
0.91123176 -0.27100182 19.937313
2.00284 -0.29034206 20.593857
-4.9506683 -0.27656972 21.330481
0.23437576 -0.2802597 20.800797
-4.840517 -0.27109671 21.645861
-10.115677 -0.23682551 20.413736
6.5143423 -0.18990661 16.005123
-8.471756 -0.21051782 20.71764
-9.800828 -0.19555087 20.170092
-5.6782613 -0.20352966 21.000338
4.0199633 -0.2038298 20.977184
9.6304426 -0.13497926 13.020586
-10.525944 -0.17574602 19.904102
-0.13939247 -0.18756637 21.19541
1.3635908 -0.17177877 19.965746
1.5966312 -0.18215953 20.140442
-10.3059 -0.15400334 20.332697
2.3244381 -0.15863033 20.489429
-11.657679 -0.14348412 20.270977
-4.3266468 -0.15408975 23.074768
-0.31779194 -0.14999665 21.099274
0.78090978 -0.14760755 20.348621
-6.7818637 -0.11934615 20.231415
-4.5733948 -0.12225699 21.437088
-14.296403 -0.11200494 21.329762
-10.887581 -0.11069242 21.05759
-9.5147038 -0.10201933 20.576851
-8.115778 -0.097245969 20.517117
3.8409636 -0.093298204 20.463139
-10.904493 -0.057255358 20.254446
-9.9947529 -0.07052274 20.434347
-5.1845641 -0.065318622 20.645823
3.3710952 -0.084610485 21.03553
-8.6794796 -0.051829446 20.775858
-10.154061 -0.022286203 20.165234
-0.65478224 -0.01508262 20.95997
-10.896411 -0.00062100764 19.995733
0.063586466 0.007217655 20.74353
0.68053317 -0.007939172 20.025631
2.9764535 0.011368203 20.521292
7.141283 -0.015205795 20.349197
-6.7757449 0.029114287 21.890335
2.0911245 0.018692514 20.219078
5.720202 0.029751997 21.375683
-9.0449123 0.04437359 20.16785
-6.536057 0.022217166 18.31835
1.7053469 0.041939922 20.355169
-9.498889 0.05929219 20.473045
7.0214534 0.052253582 16.880541
-5.4871426 0.094116136 20.916628
-0.54353815 0.10212786 20.670267
-11.496583 0.09718281 19.714661
-11.617287 0.12086825 20.361017
-8.8242435 0.10765603 20.843576
-7.6687284 0.11010145 20.13925
-4.6687622 0.11446928 21.67234
1.5231645 0.10321648 20.019794
-10.506577 0.13047925 20.077009
5.5839496 0.13986333 21.300966
-10.080814 0.13792108 20.03871
0.67411518 0.14596187 20.086428
5.0416908 0.18841077 22.084251
5.3657684 0.18489282 21.194557
-11.033518 0.19275773 19.994556
-8.9407654 0.20820643 20.155653
1.1458601 0.19129112 20.04521
-10.733831 0.21879366 20.003778
-8.5145073 0.21633837 20.519253
1.643345 0.20505047 20.206066
5.0286169 0.249798 22.754395
-4.4418402 0.23249586 21.590923
1.0075481 0.2307803 19.760584
5.0723057 0.23786645 21.541616
0.09939532 0.25626418 20.234982
-10.610544 0.29182425 20.223383
-9.9605494 0.28720203 19.983593
-9.3358269 0.29796699 20.387836
-8.812417 0.3018229 20.568134
-8.9413424 0.31232005 20.394943
0.30918396 0.31777841 19.552668
0.88727224 0.32031554 19.767866
-11.491117 0.30917436 17.633469
-10.582716 0.34354037 19.554459
-11.04702 0.37235817 19.918543
-9.7156448 0.36641389 19.813192
1.5038273 0.37153322 19.773277
-8.9233942 0.39461422 20.035069
-8.7022429 0.40762895 20.597698
-10.030186 0.42586166 19.821993
-9.1793556 0.41894928 19.667145
-9.4701538 0.43283394 19.794905
-0.83409923 0.44304249 20.177185
0.38764253 0.43334427 19.380239
0.61551887 0.43076545 19.44982
-11.400313 0.47146824 20.117857
-7.4051657 0.42511195 18.941372
-7.2722421 0.44618738 19.325382
5.1551709 0.4870117 20.98135
5.0034928 0.40095285 16.459568
-11.419112 0.43297553 17.623005
-10.76826 0.50902039 20.11017
-10.287956 0.49452057 19.775677
-0.62534344 0.49967363 19.887825
0.89757502 0.47600457 19.38743
1.5014216 0.50900596 19.818892
-1.8252949 0.50135475 18.971321
0.51483017 0.52980405 19.284868
-11.431774 0.51437241 17.90888
-8.6500645 0.58795708 20.273832
-5.3565283 0.62371945 22.214188
-4.7053013 0.61126304 20.881205
-10.562189 0.60804677 19.875725
2.2604053 0.56797945 19.114649
5.4055243 0.62739331 20.772713
-1.267469 0.62415522 20.403648
-0.71741456 0.60968137 19.801579
-11.42221 0.57313943 18.18104
-0.21024542 0.62674403 19.71784
-9.8894176 0.65529376 19.849586
0.62898695 0.62941092 19.472012
-8.5385714 0.67679924 20.32258
-0.84650034 0.6623103 19.885731
-10.559921 0.68793756 19.594063
-9.3424797 0.70240498 20.111683
1.6796519 0.67979288 19.901106
-8.3484049 0.72423035 20.624762
-10.14878 0.7230615 19.644228
2.2265458 0.67648685 18.587727
5.2190609 0.73690969 20.587709
-11.124673 0.75010926 19.781519
0.7456246 0.7166732 19.374363
-0.59363633 0.74131316 19.467218
-10.487911 0.78170252 19.830439
-8.3660641 0.79728031 20.322788
-11.263517 0.71588427 17.896618
-11.165946 0.77902263 19.567101
0.10539266 0.75997388 19.360739
0.93700451 0.80014497 20.200933
-8.5626612 0.79523778 19.479128
-9.769146 0.81875014 19.75008
0.43232134 0.80401182 19.246441
-9.9874125 0.83166736 19.606146
-8.6174459 0.8538692 20.124893
-10.736524 0.84822464 19.408897
-9.9238501 0.9148109 19.771143
-1.3742708 0.92053992 20.133753
0.93432915 0.89848197 19.360785
-10.606407 0.91134012 19.497374
-9.0044518 0.94470376 20.032198
-0.37128669 0.90823346 19.390087
0.16395728 0.88646221 19.056816
1.7993239 0.93171543 19.833529
-8.3934593 0.9714151 20.072994
-1.0710958 0.98020315 20.163046
-0.038563002 0.89967853 18.666866
-11.415615 0.97411162 19.623724
-7.9396949 0.99871284 19.921354
1.2391882 0.9419204 19.238714
-10.306803 0.98186165 19.448112
-9.2061291 1.0024538 19.689777
-4.6710668 1.1122856 22.064447
-8.2434301 1.0345104 20.026909
-10.836176 1.027271 19.439777
-10.429139 1.0173293 19.472071
2.1450224 0.90465593 17.497028
-10.021295 1.0605791 19.601358
-0.89434147 1.0730042 20.093037
6.6714373 1.0702014 19.577427
0.57974684 1.0434483 18.926952
-9.7146111 1.1047168 19.614687
-8.2568016 1.1054753 19.530174
-6.6583047 1.2321624 21.277971
1.603809 1.1391419 19.491364
-11.411395 1.1540116 19.333227
-9.8835011 1.1712717 19.619249
-8.7913294 1.1596402 19.536612
-10.445376 1.1559952 19.287535
-9.0948057 1.1861953 19.574001
-8.2011585 1.2023772 20.128485
0.62650043 1.1692258 18.90671
-9.2243195 1.3303092 21.186775
-11.216395 1.2292563 19.268074
-9.7585735 1.261566 19.739941
-0.6108039 1.2555766 19.659235
0.88245136 1.2059159 19.054779
6.845809 1.2686776 19.698362
-10.385151 1.2543869 18.978657
-0.33979976 1.2999506 19.676786
5.2212467 1.253166 19.086155
5.3019085 1.154525 17.472771
0.09039095 1.2828375 19.246901
5.3392668 1.2742623 18.980247
-1.2276063 1.3732715 20.309738
1.6047258 1.2969502 19.280186
-9.9692335 1.3925449 19.902313
-6.8918767 1.5446473 22.042915
-7.7926207 1.4443932 20.246763
-0.16407779 1.3759553 19.340355
-10.507496 1.402703 19.396835
2.8450544 1.2558714 17.235458
-11.359221 1.4275699 19.166574
0.25266236 1.4551263 19.063019
-11.294056 1.4930365 19.254461
-7.3138795 1.5947303 20.643648
-0.40576953 1.5179551 19.74296
0.0097746179 1.506925 18.703493
-6.7605577 1.759817 21.673613
-1.6591998 1.6098682 19.949768
-0.20007683 1.6191748 19.86771
1.2261802 1.5285504 18.942009
6.5094991 1.5125589 18.364208
-1.5451267 1.6907984 19.961327
-6.8532133 1.7579782 20.248024
0.098789103 1.6749372 19.157581
-6.8347635 1.983578 22.306129
6.2902164 1.6347791 18.362217
6.4429665 1.665279 18.071701
-11.171124 1.7237912 18.445238
0.41795811 1.8187013 19.342257
0.89771968 1.7657188 18.975832
0.63792759 1.7817428 18.96517
1.0858743 1.752514 18.58382
-2.8443511 1.8791553 19.713812
-6.8615017 1.9428257 19.947699
-6.9324679 2.1718631 22.234261
6.1761756 1.7378341 17.94956
-6.6810374 2.3700175 23.921196
-4.3710237 2.3684733 23.710493
-6.6789613 2.4956191 24.737505
1.1310902 1.8667758 18.427069
-15.427401 2.1852486 21.216654
-15.327064 2.274524 21.84919
6.5697427 1.8359132 17.868439
6.0217509 1.8412266 17.689196
-2.7811177 2.0460649 19.266178
1.1879425 1.9878935 18.415903
5.1021562 1.7949754 16.632074
6.366641 1.897899 17.381039
5.5564857 1.9272239 17.509666
-4.7350016 2.2736294 20.259644
7.3287792 1.8279657 16.284883
5.754077 1.8814967 16.684557
5.5326223 1.9786879 17.014547
-15.805367 2.6827755 22.341101
-7.2211285 2.2083113 18.316319
-6.4423938 2.2350833 18.664055
-5.0366225 3.0305583 25.264372
-2.5446374 2.2589014 18.621569
-11.836861 2.2277265 17.899454
-13.63482 2.5129693 20.049175
-1.5696918 2.1867442 17.588371
5.2110028 2.0444913 16.385355
-2.2032661 2.1920335 17.171688
5.5281 2.2129848 16.802666
4.954874 3.3581648 22.918541
5.193779 2.8283818 18.862989
4.8566389 3.4909918 22.852839
5.2416582 3.0806484 19.817459
-0.75171983 2.7434344 17.44405
-11.653266 3.1994066 17.995361
4.7414961 3.9710815 22.117151
-10.797401 3.2197459 17.737503
-11.182093 3.4306991 18.481892
4.4186888 4.2037234 21.988728
-7.7102656 3.3719397 15.740755
-7.8517027 3.5470991 15.813766
7.2024617 4.0023575 16.968092
-11.130892 4.7824302 18.75375
-12.472617 4.9101915 18.450848
3.3866923 5.5860114 19.225874
3.6008646 5.3875647 18.355537
4.5245643 5.5865846 18.962048
3.0717533 5.9459476 19.102409
1.4373839 6.00738 18.932854
4.4581351 5.8598242 18.417368
2.409488 5.8392119 18.197498
4.503366 5.2855248 16.265427
-7.3885713 4.6575637 14.125515
6.9110975 6.1248889 17.988382
-7.8329844 5.1125169 14.627327
7.0190191 6.3297668 18.078392
6.2083392 6.6747704 18.762621
6.6213894 6.4580388 17.862143
0.064854518 6.3888593 16.737501
8.8795414 6.4008694 16.286196
9.4770784 7.2499042 17.223164
-7.5648594 6.2638402 14.671107
-13.761228 -9.3175039 21.432072
5.2884083 -9.2000723 21.144756
-14.699128 -8.000411 20.352169
-14.816287 -7.9228249 20.549704
-14.827546 -7.6691222 20.443172
-14.333358 -7.1780624 20.484516
-14.611487 -5.9038072 18.346436
-13.250248 -5.6354175 21.071491
6.2329431 -3.7975335 19.050552
7.6031876 -2.904386 18.27524
7.4181461 -2.3814173 16.585842
-13.004148 -2.9317431 22.027386
5.2407074 -1.4836403 22.2379
-5.1897659 -1.0675459 23.997553
-11.632667 -0.37435713 20.203627
-6.0739722 0.20005463 21.827276
5.0959163 0.54809159 16.579107
-9.1659164 0.8636899 20.002745
-0.16190833 1.7970414 20.094051
-2.1610997 2.6759198 20.758217
-7.4888668 3.1161866 15.69489
-13.71634 -9.2989979 21.973957
-14.519609 -8.7037497 20.613171
-14.504504 -8.6332874 20.804237
-14.135839 -8.7418451 21.237009
-14.569833 -8.4389629 20.537783
-14.840475 -8.3613958 20.847422
-13.246869 -8.5084505 21.426085
-13.434722 -8.4242039 21.308586
-13.008206 -8.3093967 21.370934
-13.324916 -8.1756325 21.217121
-13.035723 -8.0926313 21.173765
-15.39448 -7.5976653 20.177711
-14.581045 -7.8451056 20.86825
-15.797601 -7.4398847 19.953627
-15.780441 -7.5151496 20.228231
-15.123379 -7.4820776 20.168016
-13.197183 -7.7683978 21.063229
-13.091484 -7.8420215 21.305862
-15.467252 -7.3995037 20.207047
-14.986024 -7.5311241 20.60928
-13.542618 -7.7294283 21.276569
-15.176198 -7.3657098 20.384686
-12.455535 -7.408391 20.563633
-15.789847 -7.1241069 19.819502
-14.557931 -7.504118 21.06045
-13.341661 -7.5634222 21.219463
-2.7916307 -7.5759201 21.405912
-14.398334 -7.1400719 20.18157
-12.164578 -7.2351747 20.755209
-15.427247 -6.9900794 20.070698
-14.13141 -7.3888259 21.365763
-13.266823 -7.1381474 20.651409
-14.448597 -7.2369442 20.97452
-13.999211 -7.1065273 20.673452
-14.802963 -6.8490767 19.962034
-13.040312 -7.4576592 21.709944
-14.513878 -6.9743814 20.470434
-2.8362544 -7.3438811 21.698528
-13.953264 -6.2930951 18.61009
-14.979671 -6.8841777 20.417141
-14.41402 -6.9558849 20.609833
-13.090508 -6.9142847 20.572292
-14.5189 -6.988708 21.302185
-14.441494 -6.8065042 20.894398
-13.769289 -5.8140216 17.924297
-15.084301 -6.711987 21.212914
-13.161658 -6.8215094 21.632713
-14.874271 -6.1929193 19.683628
-13.692746 -5.4389191 17.505585
-12.844186 -6.6325703 21.421844
7.3428144 -4.8738499 15.781408
-14.526367 -6.2608576 20.413673
3.4642091 -6.4013352 21.013363
-13.440642 -6.6378222 21.801992
4.1967282 -6.4918475 21.360376
-2.7934403 -6.4918251 21.468739
-12.703707 -6.4765782 21.464273
-15.709622 -5.8494382 19.508514
-13.251395 -6.3798184 21.246511
-15.440845 -5.8465128 19.526937
-14.762744 -5.7928452 19.432304
-12.795725 -6.3373775 21.302965
-14.679517 -5.9585342 20.295765
7.2092218 -5.0007114 17.020264
-12.759049 -6.268363 21.459549
-15.71597 -5.6684427 19.648855
-15.878752 -5.7406349 20.072639
-14.463454 -5.6746898 19.834291
-14.063186 -6.0034246 21.003553
7.7390037 -5.893805 20.630608
-13.283545 -6.0354428 21.165895
-12.323353 -6.1695428 21.715227
-12.944838 -6.0174851 21.257689
7.5029845 -5.862524 20.786016
-13.133414 -5.9706063 21.216026
-14.419776 -5.6994762 20.323126
-12.01376 -5.7812109 20.717356
-13.943201 -5.9412303 21.456387
7.6234746 -5.727046 20.715445
-13.277327 -5.8442054 21.223362
-12.054806 -5.9140468 21.460846
-13.768823 -5.6447544 20.605768
-12.859791 -5.8250537 21.469032
-14.443706 -5.5151768 20.477486
-11.793207 -5.8394055 21.993519
-14.117078 -5.6334453 21.375669
-13.451042 -5.5728955 21.154343
-12.03764 -5.2750282 20.439766
-13.645657 -5.4526114 21.125727
-14.263942 -5.1466889 20.048403
2.400357 -5.5574322 21.658665
-13.259045 -5.4125056 21.120144
-14.681821 -4.9989386 19.580982
-14.476812 -5.0783606 19.870489
-2.8096578 -5.5113554 21.82589
-13.181836 -5.3517661 21.258818
-12.333358 -5.431334 21.5506
-13.512663 -5.3048234 21.180147
-15.515742 -4.9491715 19.792547
-12.505949 -5.2748027 21.083895
-12.06028 -5.503829 22.022327
-12.478209 -5.3234634 21.406864
-14.961333 -4.9884028 20.093643
-13.44118 -5.1121316 20.724306
-12.559389 -5.1365619 20.855837
1.0606372 -5.4528327 22.39127
-14.565118 -4.9339657 20.301598
-5.6029501 -5.4684372 22.588312
-14.659684 -4.8767943 20.166985
-15.377374 -4.7565203 19.876465
-14.426843 -4.8734741 20.381481
-12.967106 -4.7531095 20.017931
-13.216673 -4.9006987 20.787762
-13.210034 -4.9670978 21.134335
-12.462568 -4.9411893 21.08128
0.3604455 -4.957633 21.607943
-15.086334 -4.4986238 19.716
-14.642437 -4.7304406 20.674017
-14.685334 -4.5143738 20.057453
2.3873825 -4.9617052 22.107529
-15.437234 -4.3967872 19.575958
-13.184652 -4.7128177 21.018841
2.6971598 -4.7152057 21.153681
3.7947421 -4.8676233 21.974678
3.505918 -4.6246886 21.060755
4.3552952 -4.6845741 21.449471
7.1453795 -3.7984982 17.389641
5.6782937 -4.6231523 21.421045
7.1798716 -3.2073376 14.822442
-10.458865 -4.8365536 22.522989
-15.113704 -4.1224947 19.289677
-13.529799 -4.3145857 20.2085
3.0439703 -4.6444774 21.740997
4.1464939 -4.5477343 21.503838
-14.98093 -4.0993857 19.694723
-11.00884 -4.7364221 22.782467
-14.590553 -4.0470991 19.544212
5.6276159 -4.0128088 19.344505
-10.371067 -4.4622254 21.862186
-10.466347 -4.5272193 22.583912
5.644063 -3.9966228 19.98435
5.4832525 -3.9005468 19.958868
-15.445194 -4.0913172 21.196638
-14.742778 -4.1308908 21.376562
-13.437493 -3.9994063 20.69573
-13.87129 -3.8730814 20.927097
5.4255958 -3.6187861 19.51704
-14.464273 -3.8477857 20.854843
5.8080945 -3.3656878 18.235975
-13.334248 -3.784857 20.64752
3.9969032 -3.9117558 21.553839
-15.615058 -3.8181801 21.123653
5.9776011 -3.2478428 18.168777
5.7887669 -3.1723177 18.106634
7.2955737 -3.0657971 17.529959
3.7153535 -3.6466446 21.124531
7.4038491 -2.9884126 17.362692
5.4942064 -3.175458 18.563696
6.150238 -3.102561 18.254827
5.9694943 -3.080236 18.139284
-15.185974 -3.5296602 21.424019
-10.40097 -3.6422765 22.232527
-9.6256227 -3.6636467 22.734425
-11.833883 -3.589045 22.480742
-11.481527 -3.5873756 22.415211
-10.499054 -3.5701954 22.813351
-10.689898 -3.7429214 24.029869
5.5120625 -3.1648474 20.248095
-14.577622 -3.534606 22.770441
-15.668673 -3.3815997 22.086113
-11.689832 -3.3396611 21.935381
5.6523929 -2.709692 17.883842
-11.797905 -3.2637548 21.697485
-8.9126406 -3.3066573 21.96402
-12.214907 -3.2477868 21.999588
-13.742001 -3.0462029 20.992029
5.6073422 -2.663234 18.277498
-13.712922 -3.1035795 21.3895
-8.8770943 -3.2908912 22.735313
5.4135776 -2.8305702 19.56179
-14.650366 -2.9674058 21.107273
-16.038572 -2.9125011 20.788958
-13.011865 -2.8756511 20.680271
-14.358886 -2.809463 20.290949
5.4881344 -2.678174 19.263914
-12.862117 -3.057682 22.161453
-8.6114473 -3.1104772 22.74387
5.1215072 -2.6644356 19.485872
-14.558375 -2.9285338 21.555227
-13.688659 -2.8285415 20.964178
-14.01343 -2.9303987 21.67399
-13.256516 -2.8811121 21.328915
-13.546566 -2.7173176 20.26857
1.558906 -2.9554114 22.285362
-14.646029 -2.7764292 21.037466
1.233688 -2.9828508 22.523041
5.1052175 -2.6016939 19.64366
5.6170831 -2.4238617 18.47493
7.3925681 -1.9422256 14.751725
7.5143132 -1.8749851 14.289275
-12.918286 -2.6499393 20.390831
6.0642548 -2.2652719 17.414782
0.72482175 -2.9981005 23.172703
-13.666533 -2.661005 20.691488
0.089740679 -2.9128172 22.949652
2.7110643 -2.7265918 21.780779
3.1380019 -2.6292775 21.114313
-13.535852 -2.6927869 21.783607
0.33869675 -2.9291468 23.595943
2.9666312 -2.6509285 21.793909
7.4776154 -2.1622732 17.661516
7.532269 -1.8054246 14.836332
3.3567522 -2.5235662 20.957325
5.2232051 -2.1051681 17.735872
6.2435093 -2.1413333 18.053354
-5.2417202 -2.6459281 22.651037
3.2373025 -2.4598656 21.192326
-0.029930864 -2.6164985 23.187515
3.412708 -2.2533009 20.432112
5.3270459 -2.2210147 20.418121
-16.0961 -2.1502509 20.256321
-16.005548 -2.2287288 20.832075
-4.4044819 -2.2014611 21.223715
-4.0356398 -2.1525373 21.279839
6.6672425 -1.915723 18.923239
4.1643701 -2.1265235 21.418119
-3.6653736 -2.1678135 21.867716
6.8182478 -1.7890606 18.1453
-4.1987004 -2.0579729 21.160166
-8.2577839 -2.2183907 23.193977
-3.7262542 -2.0070395 21.079445
-0.27040961 -2.1686635 22.656403
6.4355359 -1.7719265 18.728884
-15.60288 -1.8848821 20.461035
-3.4264767 -1.954389 21.602625
-4.1374865 -1.9194989 21.277452
6.3834062 -1.4369237 15.872569
-3.8880789 -1.874491 21.143179
-0.34849143 -1.8869864 22.272621
-12.80196 -1.7793179 21.161783
-3.8623385 -1.7863636 21.358648
-16.116688 -1.6742817 20.507488
-4.4544334 -1.6850885 21.302195
-16.080435 -1.7778069 22.749146
9.6813917 -1.0129751 13.142138
-13.097267 -1.5968345 21.41909
-13.36619 -1.583141 21.443476
-3.5572467 -1.570824 21.286097
6.3715663 -1.1937157 16.065804
-8.4435368 -1.5781714 21.579971
-4.5549936 -1.5362734 21.222904
-3.1190135 -1.5611635 21.658569
-3.7662847 -1.4579531 21.274191
-0.43932524 -1.4904977 22.441107
7.41749 -0.96229732 14.521179
-13.212743 -1.3775119 21.161413
-8.9070148 -1.3809302 21.244566
5.1805091 -1.4099537 21.669889
-8.0568142 -1.4685725 22.833805
-14.583014 -1.3101363 20.93858
-11.825394 -1.2830726 20.533125
-8.545166 -1.3609372 21.711477
-3.2706687 -1.397755 21.998291
-13.21433 -1.3296238 21.660341
-10.038671 -1.2875437 20.777506
-13.910176 -1.3371835 21.840326
-8.7340002 -1.2920777 21.254984
-10.906044 -1.25825 20.916361
-9.7212381 -1.2792802 21.228041
-8.0192881 -1.3264898 22.222301
-3.3006973 -1.2963301 21.561342
-11.609235 -1.1725583 20.272644
-10.275805 -1.2120703 20.756723
-9.0073957 -1.2304733 21.166821
-4.5076194 -1.2725505 21.800625
-10.939625 -1.177582 20.523779
-4.1823616 -1.1901181 21.438318
-3.6643789 -1.2179132 21.773113
0.16139908 -1.1881654 21.828987
-14.557373 -1.0979263 20.709574
-14.2247 -1.228031 22.73032
-9.6227903 -1.1175058 20.716122
-11.573983 -1.0758814 20.492651
-11.090276 -1.0796872 20.481398
9.7853851 -0.69352669 13.082292
-10.137879 -1.0830154 20.800123
-10.885168 -1.049132 20.66736
-8.8210001 -1.0739207 21.100302
-13.423222 -1.0600944 21.020416
-0.62978393 -1.1238843 22.542089
-14.29407 -1.0751338 21.880445
-15.211 -1.0909774 22.428074
-4.4485927 -1.0394495 21.672829
-11.752501 -0.9563179 20.283836
-13.342773 -0.97451389 21.172928
0.56084746 -0.97793674 21.282791
-9.4743118 -0.95149744 21.136095
-14.55803 -0.91155767 21.019804
-15.629149 -0.9721846 22.789078
-12.305708 -0.86844087 20.346041
-12.00735 -0.8579126 20.179295
-9.0912714 -0.90330851 20.859941
-3.6551309 -0.94368696 21.892746
0.34065998 -0.92704082 21.301128
-14.448011 -0.92290241 21.880709
-10.992233 -0.86700952 20.519648
-8.7667379 -0.90214181 21.340122
-0.70775867 -0.92344314 22.201864
-8.6001587 -0.88170058 21.424389
-11.648257 -0.79439306 20.334982
-4.5661449 -0.83695942 21.90415
-3.4066572 -0.85786152 22.100689
-9.4436026 -0.77039218 20.960907
-8.7160597 -0.74269831 20.85602
-8.1661043 -0.68498111 21.033781
-4.25705 -0.68401933 22.195206
-3.583421 -0.67781532 22.244633
-10.116111 -0.61136663 20.352043
-9.4830799 -0.62116194 20.784756
-4.858201 -0.62057149 21.1798
-3.4695241 -0.66271639 22.992962
0.38239855 -0.61157888 20.922064
-5.6099076 -0.57042998 21.115965
5.0081639 -0.61577266 22.345324
5.1837173 -0.56465739 21.529966
-10.652039 -0.52209932 20.256189
-6.6681728 -0.59664428 22.929277
-8.8030434 -0.52258939 20.792759
-4.0118847 -0.52967167 21.575239
-3.7050848 -0.54640079 22.388681
1.6510386 -0.50060213 20.037886
-10.944439 -0.47610977 20.41983
0.21138027 -0.49542114 20.871939
0.94739836 -0.49068511 20.530617
-8.2148876 -0.46353856 20.615408
-3.1231327 -0.50963104 21.80517
-4.6870456 -0.44818485 21.215897
-10.017052 -0.41496235 20.516708
0.43190753 -0.40818611 20.6784
-10.206776 -0.39463887 20.340612
-5.7574172 -0.39087692 21.080311
-15.410627 -0.40619141 21.925159
-9.3000307 -0.38428292 20.738235
-4.53578 -0.3969568 21.478481
-2.0044947 -0.36629361 20.637108
-9.500947 -0.34183121 20.494123
-3.8222435 -0.344482 22.164867
-5.1681809 -0.29248044 20.878935
7.0582929 -0.22223447 15.903969
-5.0021176 -0.27708757 21.481009
0.25621545 -0.27614915 20.81246
-10.849985 -0.24410133 19.95677
3.9582245 -0.23714411 20.71064
-10.067249 -0.2089323 20.315561
-10.611411 -0.19303158 20.080769
-8.481822 -0.20537017 20.707863
-5.6680112 -0.18542452 20.876226
1.5997652 -0.19711971 20.315823
-0.10195636 -0.18508644 21.059935
1.3791175 -0.1816126 19.980135
9.668087 -0.12424228 13.070344
-10.24034 -0.16026334 20.177864
-9.1400356 -0.16548927 20.382853
2.3136795 -0.16577545 20.453213
3.9258637 -0.17166407 22.202887
-11.625342 -0.13743713 20.211981
-6.6525521 -0.15627697 21.457817
-10.754143 -0.12314599 20.808315
-6.363915 -0.1236944 18.931408
-4.3834462 -0.13354513 21.577541
-7.928534 -0.092362821 20.091686
-4.575666 -0.11909603 21.326021
-3.849683 -0.1053011 22.641733
1.9567686 -0.078707762 20.19803
-9.9706602 -0.069179364 20.33769
-8.7215681 -0.067042895 20.855448
-5.9159598 -0.060999606 21.246399
-7.7713246 -0.057452876 20.578564
1.1555636 -0.057761729 19.614822
6.9988647 -0.048649732 15.71451
-10.18895 -0.026335105 20.277441
2.7039266 -0.03525741 20.354557
-10.913797 -0.0086496314 20.069622
2.9950464 -0.003696702 20.670403
-8.0122662 0.016320704 19.883049
-7.6567817 0.0017816945 20.932741
-4.9582982 0.0057245619 20.914581
1.3470234 0.0025724131 19.377724
-10.665272 0.02273841 20.162539
2.1000948 0.029321894 20.241386
-15.520032 0.038836543 21.932423
-11.554389 0.050016116 20.329473
-9.161624 0.039143052 20.465748
1.6985389 0.038337551 20.260942
-9.5029001 0.077565953 20.457579
-10.007207 0.097902693 20.509203
-8.8215036 0.10297287 20.803961
-0.50181568 0.094421312 20.78974
7.0594778 0.067326657 17.012457
-11.544629 0.10245293 19.763649
-4.7952919 0.10946409 20.53837
-10.053032 0.13450773 19.933172
-7.6226053 0.12809204 20.014551
-4.631783 0.14345437 21.529503
5.5782046 0.14984161 21.258505
-16.174706 0.17370534 21.163057
0.67521018 0.15633647 20.119019
-10.789088 0.19558801 20.137218
1.1295253 0.20242895 20.146439
-8.5758982 0.22989288 20.634369
-4.7197213 0.2274 21.004887
1.6165663 0.22185501 20.023451
5.0659719 0.24463834 21.589018
0.083061546 0.25557604 20.08964
-10.611022 0.2902447 20.296074
-9.96068 0.282747 19.986423
2.6080194 0.27713826 19.959782
-9.2340164 0.3190926 20.231236
0.27772522 0.32109991 19.579468
-11.620111 0.30074048 17.833998
-11.632435 0.34486407 20.276884
1.5361016 0.3375192 19.712738
-10.770435 0.35020947 19.899248
-9.7271814 0.37177366 19.863926
-8.9093809 0.38005731 20.032337
-0.98118556 0.37917817 20.122465
-9.2813225 0.40666077 19.829803
-5.5011172 0.43858585 21.000933
-10.082558 0.42492276 19.944498
-9.6196728 0.43153486 20.081318
-4.2029357 0.44871995 20.955662
9.8376417 0.26551369 12.659867
-5.2664886 0.44895285 20.700304
0.63778031 0.42606705 19.450335
-7.1943917 0.4442997 19.125263
0.91271144 0.46968403 19.378431
-11.328726 0.50046659 19.985186
-8.5350294 0.52329123 20.591095
-7.256537 0.45526555 18.628103
-0.58808398 0.49546683 19.907942
-11.338337 0.4432784 17.503231
1.7758821 0.53655005 20.278011
0.49665928 0.53109878 19.24678
-11.423141 0.51996803 17.880793
-8.6624908 0.59930789 20.243484
-10.517847 0.59359223 19.771286
-4.8803935 0.70196098 23.269379
-1.2515811 0.60266972 20.263773
-10.135634 0.62511557 19.86997
2.1925979 0.66458333 20.648912
-9.905529 0.65405911 19.861921
-11.606971 0.67477465 20.110916
-0.21969651 0.65135717 19.60762
-10.578873 0.69434631 19.568766
-9.3855467 0.7095657 20.165527
1.977532 0.71547598 20.237436
2.2782345 0.70786589 18.892948
-11.086768 0.75626272 19.75672
-8.8822308 0.79572308 20.132406
-8.4099865 0.8030389 20.351866
-0.59354085 0.76077348 19.413616
-11.398071 0.78288174 19.57782
-0.16675875 0.79403615 20.229301
0.93111295 0.79639304 20.19813
-11.30008 0.73523897 17.957411
-11.2073 0.81630397 19.633598
-10.427596 0.82619113 19.761669
-8.6090899 0.84661633 20.182379
-6.7320313 0.94611996 22.338985
-10.044078 0.83420146 19.699306
0.41052708 0.81741053 19.203064
-9.7262516 0.85347128 19.72201
-0.35666844 0.87884682 19.304001
0.58176321 0.8819018 19.116426
-10.486049 0.90688801 19.330225
-1.3819005 0.95061731 20.19989
-9.8930721 0.94083834 19.73633
-9.0548754 0.96144116 20.069784
-8.4780416 0.971398 20.257521
0.18944098 0.90526193 19.180161
0.93775922 0.91943312 19.382391
5.4262457 0.98182958 20.323147
-11.343163 0.97955722 19.534575
-7.9734478 1.0035603 19.986513
-0.0721028 0.91389292 18.517899
-10.441512 0.98497725 19.624029
-9.1758604 0.9965179 19.695646
1.2398483 0.95178866 19.095808
5.1817417 1.0295303 20.044197
-9.1144466 1.0602 19.936138
1.4051616 1.0396962 19.468815
-0.87808931 1.0791221 20.197424
0.5339238 1.0375386 19.132359
-9.7128372 1.0830541 19.590469
-11.147721 1.0881484 19.486876
-8.5020657 1.1250174 20.031633
-11.384134 1.1334295 19.300165
-9.8852901 1.1510912 19.610748
-6.6369233 1.2351528 21.139629
1.6082705 1.14077 19.427835
-9.0871258 1.176726 19.492878
-8.2612238 1.2262058 20.237003
-7.8740978 1.1992825 19.965794
2.1651173 1.1015913 17.828489
-11.233674 1.2152567 19.311256
-10.369255 1.2339627 19.456041
-16.048643 1.4236028 22.161089
-9.6587706 1.2527264 19.59157
-9.2881489 1.3641583 21.291582
0.9086166 1.2215428 19.226528
6.8024764 1.2389015 19.537733
-9.7321587 1.2420819 19.11331
-0.31818664 1.2774178 19.769087
2.5512326 1.1053672 17.176319
-10.530055 1.2580833 19.189558
-5.200458 1.5693929 23.714222
-9.1179714 1.3196584 19.969002
-1.29071 1.3731681 20.551676
-0.49376851 1.3373824 19.613068
1.611251 1.3118796 19.235115
-0.1625888 1.331619 19.232782
-9.8602543 1.3934199 19.685335
-7.7393074 1.4167408 20.124157
2.8805742 1.2628787 17.479372
-11.370319 1.4243029 19.184242
-1.134156 1.542639 20.332087
-6.3893833 1.3428404 17.45652
-0.41497457 1.5242351 19.783106
-11.340827 1.5192907 19.359673
1.6629591 1.473331 18.931698
0.014134726 1.4991949 18.949554
-7.0071955 1.6291518 20.064459
